# .PCD v0.7 - Point Cloud Data file format
VERSION 0.7
FIELDS x y z
SIZE 4 4 4
TYPE F F F
COUNT 1 1 1
WIDTH 976
HEIGHT 1
VIEWPOINT 0 0 0 1 0 0 0
POINTS 976
DATA ascii
4.8446164 0.078876585 0.05669206
4.8306341 0.41179156 -0.060417511
4.7211056 0.61201733 -0.044372842
4.7367587 0.78165597 0.025846401
4.6596818 1.0150089 0.090518162
4.7196751 1.2634255 0.043531604
4.5035391 1.4788941 -0.09666767
4.4517984 1.6028937 0.060907569
4.3519521 1.8697881 -0.073969692
4.2493649 2.1992249 -0.056276403
4.2269926 2.3722868 0.022600183
4.0704799 2.5316887 0.0049296548
3.987195 2.7926555 -0.041424427
2.752552 3.9937069 0.054054983
2.4844098 4.1894684 -0.043264832
2.275147 4.2858491 0.083877511
2.013587 4.417376 0.0052712867
1.8070105 4.3589759 0.0327176
1.7536979 4.4729266 -0.087093517
1.3617122 4.5666962 -0.087308615
1.1841493 4.7305102 0.080513835
1.0827252 4.6400161 0.0080242846
0.76143223 4.7779827 0.0025792895
0.59213179 4.7603612 -0.092071712
0.317206 4.8573027 0.086234175
0.14440712 4.7334375 0.04777908
-0.10124993 4.7417665 0.037644494
-0.42496097 4.7421031 0.076087266
-0.52012199 4.6920643 -0.054134149
-0.73344177 4.6568394 0.037406199
-0.94477934 4.6542168 0.031533025
-1.1855577 4.5631938 0.084866174
-1.495556 4.5662475 0.036915921
-1.6072047 4.4171972 -0.056762792
-1.8091937 4.4117217 -0.070395783
-2.0280609 4.2527246 -0.0135371
-2.2800729 4.0675969 0.057272635
-2.5364287 3.9780054 -0.054706458
-3.8507309 2.6537077 0.011360968
-3.9277508 2.4384713 0.081433006
-4.1035676 2.2300615 -0.00083897001
-4.0753231 2.1967821 0.087073013
-4.1835613 1.8666372 0.050026394
-4.3293424 1.6346874 -0.053475477
-4.3581953 1.4067975 -0.069449827
-4.3899007 1.1617985 0.058766294
-4.5538201 1.0617679 -0.085021824
-4.4358807 0.69711101 0.0043848925
-4.6187768 0.50681508 0.059631828
-4.524394 0.3612076 0.093553245
-4.548687 0.15238027 -0.081231691
-4.6439867 -0.12498729 -0.084281355
-4.6401224 -0.41700917 -0.0076436885
-4.4620929 -0.5710842 0.051188383
-4.5764217 -0.8803423 0.10007093
-4.4956756 -0.95787168 -0.074834086
-4.2757845 -1.3462741 0.074180193
-4.3889012 -1.5742071 0.084686041
-4.2020035 -1.7531245 -0.067301482
-4.1494503 -1.816443 0.064011246
-4.0527916 -2.0935853 0.015958216
-3.9209814 -2.2663291 -0.079999767
-3.7825575 -2.4462814 -0.039068755
-2.4001951 -3.772723 0.075594969
-2.2551737 -3.8851576 -0.0928436
-2.0554769 -3.9574521 0.08514753
-1.8253733 -4.0611176 0.095959045
-1.6414374 -4.1396942 0.096791364
-1.4426832 -4.3035502 -0.067134179
-1.19212 -4.2972403 -0.084528849
-1.0069722 -4.4866691 0.025968157
-0.8671388 -4.4464741 -0.036554355
-0.62106407 -4.5795841 -0.085095592
-0.33240378 -4.6092663 0.030298634
-0.12797406 -4.4766212 -0.043919381
0.10857143 -4.5327253 -0.07727167
0.3231096 -4.5524697 0.088935837
0.54790807 -4.5868545 0.069609106
0.77243626 -4.6254139 -0.030939192
1.0313874 -4.4202032 -0.053149443
1.2707479 -4.4400039 -0.0035406188
1.4178694 -4.3329897 -0.063416623
1.6991999 -4.395267 -0.017131036
1.9281955 -4.1860776 0.027600247
2.0682757 -4.1909566 0.02189339
2.3293226 -3.9785666 -0.034252897
2.5517082 -3.9711654 0.084255084
2.7345114 -3.7582133 -0.048474688
3.9944851 -2.5812922 -0.047828395
4.186305 -2.2676964 -0.081179738
4.1462526 -2.1329083 0.01541032
4.3458748 -1.8669121 -0.042172227
4.4754381 -1.732724 -0.033999369
4.4408793 -1.3793906 -0.099212065
4.6404452 -1.2920338 -0.062287576
4.6235247 -0.94539636 0.083858296
4.7395301 -0.77336359 -0.075699151
4.7629948 -0.61026734 0.054926917
4.8425865 -0.27597925 0.072455645
4.7116132 -0.071596272 0.0096806269
5.2387714 0.18098649 0.17142895
5.3478713 0.35375819 0.10474027
5.1869268 0.56242883 0.16241615
5.2217388 0.85267335 0.15928879
5.1789961 1.0686152 0.025584605
5.1609411 1.4039443 0.017311998
5.0769291 1.6019168 0.15712708
5.0214205 1.7804503 0.033893466
4.8847899 2.0062339 0.017148048
4.7541618 2.2793424 0.17587942
4.7494793 2.5658646 0.15686591
4.6061134 2.7618437 0.056494694
4.3853574 3.0091641 0.11127693
4.2119031 3.1154814 0.0040093595
3.1069977 4.2894206 0.062220018
2.9352512 4.3726358 0.0077300733
2.7483001 4.6292634 0.10621442
2.4947493 4.6994185 0.14185593
2.3120832 4.7134252 0.16610767
2.107337 4.888536 0.031069076
1.8565469 4.961729 0.15548816
1.5825397 5.0051031 0.054703049
1.404539 5.1517777 0.18646929
1.0782886 5.2592659 0.016715281
0.84233588 5.1243052 0.14615676
0.66276264 5.2130876 0.01243392
0.42747602 5.317265 -0.00066715048
0.090060964 5.3766074 0.13108218
-0.21171317 5.2678661 0.16253661
-0.48862392 5.1743107 0.066079542
-0.69935095 5.2547178 0.15131941
-0.98382884 5.0901489 0.00018481664
-1.1666584 5.1803374 0.12791565
-1.4146907 4.9801993 0.1074277
-1.6288559 4.9826307 0.10850941
-1.9093771 4.846034 0.16724502
-2.1188471 4.7161398 0.11144618
-2.3360844 4.6916804 0.1087396
-2.6156917 4.608573 0.0035183984
-2.8574307 4.4913707 0.023430258
-2.9886959 4.2053633 0.15485424
-4.1016703 3.1570594 0.1651559
-4.2373753 3.0407784 0.12132957
-4.4349756 2.714534 0.14515182
-4.4423633 2.6090894 0.051131666
-4.6376662 2.2544188 0.11198876
-4.7629547 2.1173465 0.14595281
-4.7325158 1.7853311 0.069737889
-4.8930364 1.5906934 0.035699546
-4.9468393 1.365469 0.02044511
-4.9686275 1.0137911 0.065543294
-5.0467548 0.8214972 0.1369819
-5.1022396 0.63805598 0.099963635
-4.9891338 0.39180598 0.15145741
-5.0397444 0.062869973 0.11867817
-5.1718979 -0.14705813 0.15828228
-5.0307331 -0.37863052 0.093203336
-5.0431876 -0.68703538 0.13327381
-4.9195147 -0.87437147 0.020075519
-5.0176435 -1.2452567 0.12664472
-4.9189234 -1.3791815 0.12956059
-4.7631655 -1.7441319 -0.0093578137
-4.7242208 -1.9292247 0.12057398
-4.510767 -2.1777148 0.057771251
-4.4345403 -2.2652204 0.12016135
-4.3800888 -2.4852142 0.026753314
-4.275331 -2.7763066 0.15529183
-4.0252771 -2.9040158 0.027722685
-3.0069091 -4.0184798 0.16328515
-2.7685168 -4.1583004 0.17599727
-2.6166222 -4.2568026 0.099788941
-2.2553964 -4.4685616 0.10001404
-2.0272059 -4.5218363 0.1523281
-1.8637477 -4.6533694 0.18856035
-1.5583162 -4.811419 0.16436224
-1.3862898 -4.8285441 0.14136508
-1.1040481 -4.8649483 0.042057272
-0.89023483 -4.9855471 0.022891279
-0.60155487 -4.9501362 0.16410463
-0.37548009 -5.0718083 0.1118965
-0.13546854 -5.04392 0.097211659
0.028948564 -5.0635095 -0.0039069629
0.39359251 -5.0694804 0.15602218
0.60994005 -5.1319165 0.087462358
0.86129868 -5.1136646 0.15237065
1.0866302 -4.9524097 0.079924837
1.2865324 -4.9416647 0.038906865
1.5840969 -4.9530249 0.1330197
1.8588753 -4.7142229 0.1060368
2.0706656 -4.689888 0.18853332
2.2254748 -4.6675286 0.11765362
2.5602665 -4.5236011 0.033457924
2.7880599 -4.2581553 0.13708806
2.9693696 -4.2191796 0.15961765
3.2751896 -3.9707685 0.16931759
4.312953 -3.0192924 0.096848853
4.3497858 -2.7826855 0.17946443
4.5352283 -2.4865882 0.18295574
4.6040831 -2.3506842 0.14554514
4.8349524 -2.0342922 0.041017432
4.9370403 -1.7901679 0.055869516
4.9567223 -1.6335555 0.10038999
5.080462 -1.4661453 0.085092537
5.0958929 -1.1285893 0.17280489
5.1217518 -0.89003748 0.16258706
5.1450734 -0.6861791 0.029300904
5.2835855 -0.39006335 0.12481115
5.2922964 -0.24331591 0.10167471
6.1653519 0.048525169 -0.027888488
6.1141062 0.29879433 0.15306781
6.1437702 0.74738103 0.14576876
6.1737761 0.92269194 0.057925664
6.0338798 1.3398211 0.096131198
6.0643854 1.5016935 0.026907183
5.9684601 1.8301406 0.14821562
5.8483644 2.1341724 0.022926785
5.7812543 2.340641 0.14146516
5.5961838 2.7314939 0.15323727
5.3747964 2.9095688 0.0017624303
5.2321572 3.2368152 0.0035771173
5.0579686 3.408083 0.15771429
4.8643579 3.63762 -0.0076727755
4.7711926 3.9693611 0.15137348
4.5049615 4.1874447 -0.017559247
4.3587027 4.3790417 0.055646341
4.1234426 4.5334153 0.15080747
3.9531016 4.7167869 -0.024727369
3.692049 5.0241981 0.1190059
3.4340825 5.2320733 -0.024537353
3.2165403 5.2316074 0.10068768
2.9933167 5.4033742 0.14619805
2.7173567 5.5397215 -0.021637063
2.4697752 5.7524848 0.10807196
2.1756597 5.87958 0.030917304
1.907699 5.8515248 0.1302035
1.508711 5.9894032 -0.020982761
1.2013407 5.9677358 0.017159082
0.91559047 6.1049042 -0.020060183
0.77143359 6.2125578 -0.020466205
0.48230362 6.1391344 0.019723171
0.11768264 6.0863957 0.085246392
-0.20142865 6.2084618 0.15354286
-0.48766032 6.1399627 0.1142089
-0.84275454 6.0399971 0.095046327
-1.0728648 5.9397206 0.15463297
-1.4008451 5.9124603 0.072855093
-1.6764696 5.8535347 0.10431011
-1.9097205 5.7875991 0.022133833
-2.1752796 5.6586118 0.011234159
-2.4356656 5.5232873 0.10504416
-2.8496292 5.5071397 0.13881159
-2.9911971 5.2560015 0.10192139
-3.2569735 5.2023907 0.01837142
-3.5539842 4.8763986 0.071205795
-3.6614726 4.8012829 0.074535914
-3.9001255 4.6767697 0.11567875
-4.2107654 4.3521404 -0.022887578
-4.479641 4.06603 0.065780193
-4.6198897 3.9817379 0.1323586
-4.7597685 3.6993997 -0.016019063
-4.9941268 3.4597685 0.15300551
-5.1825948 3.1289535 0.017301021
-5.1954474 2.9758549 -0.01309896
-5.2789922 2.7617614 0.0015481722
-5.4965219 2.4681504 0.12383036
-5.6972518 2.1552618 0.11562174
-5.6431112 1.941986 -0.012389815
-5.7135844 1.6604573 -0.011374575
-5.881247 1.229189 0.13027792
-5.9680309 1.0379798 0.023772091
-5.98877 0.78134477 0.12050176
-6.0259743 0.49376148 0.13738395
-5.9843202 0.13905349 0.059632197
-5.9584861 -0.1656138 0.033126008
-5.9034414 -0.56669056 -0.015417633
-5.9116044 -0.86013305 0.10030488
-5.9135532 -1.0040882 0.084819287
-5.8292127 -1.3364171 0.074106328
-5.7297134 -1.5677539 0.12197048
-5.6746087 -2.0308304 0.071316548
-5.5122809 -2.2733445 0.058859326
-5.4397521 -2.5256045 0.055081043
-5.3371601 -2.7226601 -0.0064262636
-5.0994606 -3.0942721 0.12437946
-4.8757601 -3.2251711 0.15037467
-4.6884789 -3.5924697 -0.022234119
-4.5737634 -3.8037918 0.15390252
-4.4632616 -3.9865847 0.087567627
-4.1526685 -4.1392908 0.076212041
-3.9838996 -4.3197398 0.083865009
-3.655992 -4.633944 0.1261781
-3.5312905 -4.7847056 -0.012172525
-3.2016802 -4.9547029 0.11778478
-2.9254754 -5.021275 0.13462171
-2.7109675 -5.2105455 0.071557075
-2.4635897 -5.3707051 0.084091865
-2.1825848 -5.5857091 0.11951846
-1.919862 -5.6707535 -0.0028823137
-1.7185603 -5.6362929 0.1371856
-1.3243799 -5.83424 0.10167078
-1.119002 -5.9150562 0.14601593
-0.86846447 -5.8910427 0.022393461
-0.55413628 -5.9658551 0.099857971
-0.10841963 -6.0009131 0.069712289
0.15485135 -5.8653584 -0.0032469251
0.35505971 -5.9331779 0.097233325
0.76708949 -5.9769979 0.10312857
1.0131187 -5.820734 0.13092874
1.33461 -5.930809 0.086410783
1.5933267 -5.7187009 0.12321584
1.8129878 -5.7769127 0.1443311
2.0727637 -5.6633229 0.04028653
2.4040072 -5.5165062 0.097833812
2.6071374 -5.4067621 0.14221732
2.9738901 -5.3175445 0.12948716
3.2608123 -5.1122394 0.041688628
3.440721 -4.9786644 0.088258252
3.6184263 -4.681776 0.054769184
4.0152478 -4.5443864 0.060459692
4.1583037 -4.4268684 0.013212456
4.3283749 -4.165204 0.028563133
4.5092525 -3.9155416 0.064360462
4.7752843 -3.8020217 0.14010255
4.8875937 -3.5477216 0.0052448465
5.0325775 -3.1833508 0.026079683
5.3527088 -2.9824541 0.10583478
5.3725367 -2.8451552 0.16027264
5.6260767 -2.5661819 0.14058237
5.6329484 -2.1183729 0.075552277
5.8320408 -1.9469004 0.13403863
5.9701586 -1.6156271 0.049382828
5.9096751 -1.304117 -0.00072853849
6.0708466 -1.1171045 0.037768621
6.0934596 -0.79774052 0.096402913
6.1667933 -0.50234658 0.076557279
6.0464516 -0.24436304 0.006655422
7.2689557 0.088819467 0.016856644
7.2523108 0.39368701 0.039449502
7.1988196 0.78415155 0.038288698
7.0632048 1.065063 0.13145564
7.169086 1.5883372 0.073836848
6.9734645 1.7684942 0.041434024
6.9110699 2.240509 0.10620435
6.8707361 2.4793112 -0.0023477133
6.6728635 2.7492423 0.089665778
6.6392765 3.0703509 0.14340262
6.3202605 3.5216212 0.032222088
6.1950417 3.7567379 0.076053068
6.077683 4.1552777 0.16133538
5.7448816 4.2514977 -0.019800644
5.6914506 4.7031951 -0.022471908
5.3671231 4.8250499 0.01355536
5.1976652 5.1663117 -0.015687739
4.8808322 5.3648677 0.061571993
4.6439118 5.678771 0.082250036
4.2881079 5.8876243 0.10409672
3.9758081 6.1210079 0.064617462
3.742785 6.1873822 0.15575553
3.5447619 6.3088884 0.14976396
3.2239237 6.4839511 0.15386564
2.9146051 6.6053572 0.13376981
2.5960414 6.8151469 -0.029470008
2.107718 6.8806138 0.095088251
1.7851646 7.0662642 -0.023116136
1.5356969 7.0633197 0.14399038
1.1035556 7.1636105 0.10463572
0.89073986 7.2207289 0.097145937
0.4367606 7.1233907 0.16879299
0.073075823 7.3153653 -0.010558288
-0.29660133 7.2819142 0.027796088
-0.66133481 7.2419219 0.045727085
-1.0444814 7.1927791 0.14748687
-1.3883483 7.1706166 0.0049247555
-1.6043069 6.9463348 0.15466043
-1.9342972 6.9973783 0.024761481
-2.2921958 6.7446504 0.135309
-2.6836636 6.6102614 0.060120922
-2.8760488 6.5550361 0.061834645
-3.1894441 6.4704537 0.046918549
-3.4740944 6.1509018 0.0071233227
-3.911561 6.0008974 0.15306364
-4.1215549 5.800796 0.092682891
-4.4195576 5.5878434 0.069951758
-4.6492267 5.2871156 0.099597804
-4.9176259 5.1809592 0.073608346
-5.1037798 4.8370624 0.10464872
-5.3666596 4.6166801 0.12723096
-5.6914511 4.3129621 0.036387846
-5.8007331 3.998219 0.018290225
-6.1106501 3.6937892 0.053117376
-6.2456303 3.4387393 0.12515023
-6.4195228 3.0517337 -0.0014260745
-6.4382691 2.8352852 0.074333757
-6.663878 2.447602 0.077933297
-6.6436691 2.239207 0.016671708
-6.8330131 1.8810012 0.064954691
-6.9746556 1.4843447 0.15783326
-6.8768697 1.1748722 0.022868685
-7.0529366 0.75512767 0.059269257
-7.0300074 0.4110319 0.086892001
-6.9550953 0.10363041 0.16394833
-6.9909739 -0.22029373 0.16658062
-6.9362731 -0.62027848 0.072691053
-6.988718 -0.9182142 0.11761971
-6.8205733 -1.2836181 0.086442307
-6.896843 -1.5416491 0.034335658
-6.708168 -2.0604441 0.12702405
-6.6101766 -2.2166085 0.05504375
-6.4309773 -2.7001851 0.11064468
-6.3995075 -2.9284842 -0.028839294
-6.1248865 -3.2659087 0.074130468
-5.9580607 -3.6396723 0.0030329076
-5.7738686 -3.7756176 0.080966227
-5.6692829 -4.1972728 0.0082974993
-5.5059719 -4.500349 0.11503983
-5.1605587 -4.7454429 0.10521689
-4.8545246 -4.8836336 0.11389269
-4.6436548 -5.2214313 0.09871351
-4.4932289 -5.4932194 0.1264825
-4.0763035 -5.6620464 0.045905203
-3.7886288 -5.8997712 0.1405143
-3.5884397 -5.9288521 0.16587535
-3.2505162 -6.1462054 0.15097755
-3.0265601 -6.4453049 0.00057001901
-2.6679273 -6.580843 0.023001332
-2.3959768 -6.5836554 0.065358512
-1.9280605 -6.7055449 0.023011563
-1.6464803 -6.853559 0.084209062
-1.3759035 -6.8994532 0.102235
-0.87420458 -6.9874411 0.16677396
-0.65056032 -7.0568628 -0.0048667709
-0.33062106 -7.0046449 -0.018323537
0.015524426 -7.1018238 0.12339959
0.54677451 -7.0704441 0.12340896
0.72677666 -6.9831963 0.12973961
1.1275289 -6.9333987 0.059249148
1.5681206 -6.9309783 -0.023311453
1.7630167 -6.7674031 0.039497182
2.2149391 -6.6580367 0.13313411
2.4799039 -6.575335 -0.0013406913
2.8036237 -6.4001393 0.037648808
3.1491318 -6.4381442 0.15464838
3.4738417 -6.2643299 -0.016893744
3.7321801 -6.0939732 0.034403957
3.9816995 -5.8778973 0.1472543
4.428009 -5.594121 0.067112446
4.5935988 -5.4007735 0.12961057
4.8657331 -5.1407199 0.07905668
5.1891432 -4.9533129 0.044579603
5.3940463 -4.6211081 -0.016922859
5.6517496 -4.4801764 -0.029130191
5.735167 -4.102798 -0.021112777
6.121789 -3.9030933 0.0034200302
6.1225891 -3.5400288 0.025861101
6.1944876 -3.1258261 0.14641722
6.4950252 -2.9203305 0.010840662
6.7344275 -2.7293432 0.12256962
6.8204594 -2.324676 0.065809518
6.8397665 -2.044307 0.15518472
7.0081601 -1.5953996 0.12334554
7.0983906 -1.3132411 0.16748124
7.1595683 -0.95966446 0.11314038
7.2117729 -0.61850077 -0.027585281
7.2714167 -0.2621288 0.099119157
8.6128302 0.16122971 0.046223242
8.7100754 0.43338367 -0.024408665
8.7202559 1.002048 -0.023966819
8.6215324 1.3287061 0.054652631
8.4455404 1.7617942 0.081362188
8.5385885 2.2658324 0.019711252
8.3796854 2.5783255 0.098774455
8.2450781 3.0860851 -0.013384084
8.0366077 3.396163 0.068299331
7.868257 3.732142 0.15734626
7.6078677 4.1155329 0.11857598
7.4771523 4.5967617 0.12965812
7.2580214 4.9085879 0.088120401
7.0220928 5.1618805 0.15398873
6.8481302 5.4990473 0.036735099
6.4848504 5.8086615 0.011354412
6.2445569 6.2581134 0.091339126
5.8686652 6.4908013 0.077974349
5.5666914 6.8516831 -0.019437365
5.1332474 6.9993682 0.032939311
4.9764996 7.2599354 0.09138079
4.5694618 7.5807567 0.063498154
4.1628466 7.6906567 -0.009452628
3.7049196 7.7895746 0.025513373
3.3039956 7.9556732 0.064620987
2.9778831 8.2152491 0.093470238
2.6194046 8.3062849 0.065821983
2.1348913 8.5075254 -0.02042722
1.8319746 8.5065403 -0.021721676
1.4276007 8.5847902 0.064768642
0.87256032 8.6311474 0.16857821
0.57392836 8.6067171 0.16720028
0.046395484 8.7225065 0.06749624
-0.35408914 8.7369528 0.076769277
-0.71859139 8.71595 0.080942057
-1.2419549 8.5423193 -0.0073532006
-1.533428 8.5908041 0.06286478
-2.0485055 8.5415621 0.021640481
-2.4447954 8.3814526 0.086859852
-2.8363626 8.213336 0.15809225
-3.1344554 8.0899057 0.023953948
-3.5208058 7.8699713 0.034290981
-3.8996706 7.7260623 0.15003148
-4.3684669 7.3856845 0.09056586
-4.6173325 7.284306 0.041152906
-5.0505071 7.0615792 0.069797732
-5.3596277 6.7469382 0.019124778
-5.5853782 6.5133619 0.011743199
-6.0384307 6.2752647 0.15689738
-6.2116036 5.8320546 0.066419967
-6.4981837 5.4709582 0.0045203147
-6.9028754 5.296556 0.093849242
-7.0805783 4.9082718 0.029174928
-7.3253021 4.607234 0.032314774
-7.4117088 4.2035751 0.16005218
-7.7292447 3.7023535 0.10827817
-7.7993937 3.4161825 0.0017330074
-8.1010609 3.0162106 0.13750871
-8.190589 2.6621625 0.12644805
-8.3151236 2.2202241 -0.02190057
-8.3100233 1.7626088 -0.011498506
-8.346489 1.3561707 0.15750249
-8.4731169 1.0122495 0.083572716
-8.4437857 0.44759583 0.065478444
-8.5906067 0.0037588268 0.011258984
-8.5889568 -0.36765718 0.033126414
-8.4183731 -0.83699006 0.15499757
-8.3337002 -1.2538979 0.071007244
-8.2927437 -1.6247523 0.034065958
-8.2425117 -2.0033963 0.16230358
-8.1205158 -2.4793148 0.045082401
-7.968277 -2.7134264 0.13762638
-7.8275151 -3.2154357 0.10549653
-7.7415276 -3.6490679 0.12999435
-7.4548903 -4.0102525 0.13295573
-7.2041864 -4.3703437 -0.013196401
-7.113831 -4.7802291 -0.0073942756
-6.8843637 -4.9455953 0.0007569099
-6.5222321 -5.329833 0.054270383
-6.1810136 -5.7432022 0.14131354
-5.8961935 -5.9332795 0.15957639
-5.713932 -6.2889266 0.14484926
-5.4252014 -6.6404405 0.022251431
-4.9554458 -6.8610864 0.052227851
-4.6488395 -6.9683318 0.098363325
-4.3277507 -7.2158108 0.15198006
-3.9421532 -7.5811114 0.15262628
-3.5409777 -7.7418604 0.13330498
-3.1227839 -7.7815905 0.062794931
-2.8431399 -7.9368305 0.098814189
-2.4694655 -8.0789766 0.050732225
-2.0715072 -8.3249311 0.13832055
-1.4832355 -8.3818779 0.15035169
-1.2135141 -8.4817228 0.0016683732
-0.71077138 -8.3997955 -0.010980922
-0.3598581 -8.5330095 0.15493281
0.045692082 -8.4274416 0.16380604
0.45189136 -8.4772654 0.0019063243
1.0377549 -8.4743528 -0.028489044
1.3510791 -8.3652668 0.13795592
1.6973834 -8.2630882 0.094814822
2.1915638 -8.1497269 0.11844011
2.5682976 -8.0401344 -0.022271827
2.9510469 -8.0571785 0.0094455816
3.3781312 -7.771203 -0.025143296
3.7846346 -7.7364378 0.038187295
4.14819 -7.4996781 0.017510986
4.510848 -7.260736 0.13670352
4.90095 -7.0394335 0.027791845
5.2491407 -6.9068255 -0.023683637
5.5514278 -6.6274776 0.15486065
5.7974238 -6.2500992 0.15427113
6.2531238 -5.8877649 0.15066709
6.5534534 -5.7291465 -0.0024300294
6.0788321 -4.8382258 0.21236834
6.1681957 -4.514936 0.31538689
6.1358953 -3.90325 0.52376634
6.2115364 -3.6163223 0.50445771
6.1820979 -3.103549 0.68050861
6.5660386 -2.9603338 0.62903869
7.4211917 -2.8433053 0.22165954
8.266181 -2.7236042 0.11579139
8.3843002 -2.3543117 0.11491548
8.4789772 -1.9699987 0.16676289
8.6004457 -1.5399288 0.10427199
8.6824875 -1.0996836 0.14773189
8.5885668 -0.78693533 0.083345458
8.7654476 -0.42337 0.10618874
10.721854 0.11078494 0.066238932
10.69451 0.60436916 0.13267533
10.648459 1.1042768 0.09152475
10.603305 1.5877924 0.068872012
10.660713 2.2530725 0.014427272
10.492002 2.6952684 0.13718872
10.350169 3.1600506 0.077871971
10.121215 3.6271088 0.042603754
9.9114857 4.1397896 0.1008414
9.81359 4.5883489 0.10136591
9.5152702 5.0938497 0.012150848
9.3374996 5.572742 0.092258081
9.0040884 6.0309296 0.14927399
8.6081247 6.4938564 0.16932929
8.3688345 6.8885126 0.13796508
8.0552025 7.213026 0.037118521
7.6452603 7.7182875 0.095629588
7.3578005 7.9408908 0.12324598
6.8177867 8.3234253 0.17426127
6.5196815 8.6006794 -0.0055968212
6.0067673 8.9947186 0.051618051
5.5903378 9.248065 0.13143051
5.0407825 9.4264793 0.02636794
4.7361088 9.6881886 0.15546924
4.2404847 10.009971 0.065795816
3.7036457 10.13687 0.10353319
3.257288 10.391193 0.066714264
2.6619687 10.513227 0.090881042
2.088011 10.667367 0.15503547
1.760046 10.711574 0.17379299
1.0484451 10.646154 0.084612407
0.59153515 10.781739 0.16820183
0.013173553 10.798345 0.17170578
-0.47025183 10.752954 0.0011182182
-1.0233142 10.665653 0.13978034
-1.4635284 10.705172 0.016588604
-2.0622296 10.570817 0.18320093
-2.4927299 10.521317 0.13195848
-3.0928106 10.384563 0.11993419
-3.4212666 10.211909 0.062438652
-3.9222951 10.023893 0.075306967
-4.5026555 9.6781836 0.18515918
-4.9884233 9.4551048 0.098722555
-5.4585552 9.2501631 0.17974029
-5.8860435 8.993082 0.012010852
-6.3605709 8.5948639 0.14796853
-6.742959 8.293973 0.039201021
-7.1424074 8.0543671 -0.0041928776
-7.375814 7.7010403 0.15550199
-7.8030462 7.299016 0.10701612
-8.0687037 6.8679671 0.059221849
-8.5015974 6.5196695 0.078206442
-8.8039665 5.9387093 0.1098696
-8.9713717 5.5296221 -0.004951553
-9.2356825 5.1228886 0.10368142
-9.6450253 4.6582689 0.11603353
-9.6951427 4.2137008 0.15010716
-10.030249 3.7569506 0.087085761
-9.9986153 3.1815462 0.079855375
-10.354455 2.6458893 0.15531324
-10.347915 2.124475 0.044328962
-10.563925 1.6878133 -0.0015516776
-10.53549 1.2470009 0.00034234903
-10.649777 0.71685517 0.036186017
-10.653178 0.1796536 0.12156674
-10.522206 -0.3310703 0.010734033
-10.553175 -0.87809592 0.1347457
-10.524454 -1.3689309 0.091271885
-10.333294 -2.0457153 0.026740229
-10.171655 -2.5475097 0.075554125
-10.062054 -2.9215672 0.11462142
-10.038805 -3.4144645 0.033718273
-9.8372021 -4.0060172 0.032473058
-9.6099243 -4.4633842 0.02407752
-9.323534 -4.9002304 0.0027411403
-9.1290617 -5.4067955 -0.0050560352
-8.8233433 -5.769628 0.16312371
-8.5722113 -6.3535862 0.16095059
-8.1438761 -6.6206594 -0.0012990793
-7.7601752 -7.0246172 0.04634589
-7.5085869 -7.4415092 0.025370803
-6.9997292 -7.7814054 0.009466703
-6.7544866 -8.0893145 0.091309227
-6.2941585 -8.5625172 -0.0047628442
-5.8268905 -8.7643929 0.13076814
-5.3666568 -9.0088339 0.016052783
-4.9009843 -9.4059954 0.18159382
-4.4549966 -9.6312437 -0.0080324076
-4.000174 -9.7274847 0.14872907
-3.4977481 -9.9587374 0.098666996
-2.939003 -10.075733 0.011563822
-2.5937579 -10.23901 0.14621769
-2.0581596 -10.329131 0.11554613
-1.4356941 -10.547067 0.13436066
-0.9055205 -10.500996 0.053316511
-0.43728954 -10.612099 0.0084495936
0.11749256 -10.488082 0.024963139
0.63781929 -10.560733 0.052072048
1.1672604 -10.632256 -0.004482606
1.6509438 -10.464993 0.0965086
2.280792 -10.411453 0.045068979
2.6185193 -10.29283 0.17028914
3.2846501 -10.1253 0.12035657
3.7126412 -10.027362 0.14221349
4.1507792 -9.6954803 0.074406639
4.6980271 -9.5945807 0.13414633
5.1894064 -9.2398901 0.13084573
5.6851692 -9.0664339 0.042097729
5.994812 -8.8644619 0.04332212
6.4336038 -8.4778891 0.14768901
6.9580574 -8.1575031 0.016013484
7.2147455 -7.7911849 0.088135533
7.5793719 -7.4451056 -0.01200894
8.0758686 -7.1508083 0.021358473
6.1228814 -4.8413787 0.71098119
6.0904355 -4.4938307 0.82355821
6.2917123 -3.9277999 0.85511279
6.2643094 -3.5283039 1.0017079
6.3235049 -3.2697124 1.0697803
6.5112834 -2.9761829 0.92745674
7.5343351 -2.9701614 0.84033757
8.4200811 -2.8922887 0.52952737
10.333385 -2.9583633 0.013105595
10.475804 -2.4928234 0.039053075
10.626624 -2.064342 0.12837741
10.728786 -1.5419589 0.1488643
10.67053 -0.86717904 0.12343252
10.770678 -0.44455665 0.091514409
13.235025 0.037880272 0.29223558
13.200225 0.69834745 0.19041388
14.217457 1.4157885 0.087381251
14.121697 2.1121247 0.0071362914
13.919068 2.9060609 0.15220712
13.794387 3.4958036 0.057419516
13.662567 4.1130867 0.079456151
13.387432 4.9328818 0.10719286
13.100671 5.4186416 0.08924517
12.956964 6.1528225 0.170928
12.550508 6.8329535 0.0088082748
12.342106 7.4780755 0.060677301
11.802628 7.9919443 0.088693291
11.513986 8.4761705 0.12333891
11.117703 9.0562525 0.067218892
10.640126 9.642272 0.12279349
10.042488 10.058909 0.12589037
9.6427679 10.594275 0.088922843
9.0478783 11.067704 0.089345455
8.6134024 11.452668 -0.011368509
8.0402908 11.916221 0.14731357
7.286109 12.285535 0.14646091
6.7662601 12.657893 0.072355017
6.0583482 12.911667 0.11430139
5.570498 13.165859 -0.011525675
4.8134737 13.364863 0.12244861
4.3005323 13.613288 0.16974652
3.5807858 13.932644 0.073214635
2.8157828 13.950223 -0.0038135513
2.2445469 14.04771 0.076563671
1.567591 14.106502 0.020329904
0.84597236 14.164273 0.16160555
0.12182602 14.27277 0.13268931
-0.67642778 14.259967 0.045077492
-1.2310632 14.16055 0.13002141
-1.9081843 14.118525 0.16384324
-2.646328 13.989668 0.028077547
-3.3305216 13.777364 0.026295507
-4.1029611 13.645011 0.089805029
-4.7425299 13.393479 0.13196632
-5.2902322 13.12258 0.14782242
-5.8811178 12.991595 0.17029667
-6.5161462 12.600353 0.084181391
-7.1640148 12.2755 0.0022849105
-7.6819615 11.859806 0.072061189
-8.2960167 11.428341 -0.015155855
-8.8559341 11.116042 0.087542318
-9.3299809 10.571239 0.13016112
-9.9829063 10.09849 0.025738424
-10.348206 9.6219225 0.087734737
-10.846073 9.0231276 0.12889658
-11.30172 8.4471369 0.12065256
-11.707499 8.0365477 0.033578612
-11.971034 7.3638105 0.16414481
-12.287211 6.7427287 0.050767578
-10.037076 4.7983022 0.65272689
-10.069427 4.3457317 0.65965128
-10.167185 3.7530279 0.77564675
-9.9912901 3.2201245 0.69804305
-11.997272 3.0901659 0.48268121
-13.754525 2.9405625 -0.005299578
-13.920381 2.1260517 0.0065599722
-14.060741 1.5009451 -0.024033923
-14.054233 0.78078866 0.059723094
-14.083092 0.085355498 0.12702355
-13.99122 -0.51390463 0.1320039
-14.010012 -1.3025352 0.06262245
-13.824381 -1.9761684 0.17107177
-13.725462 -2.6905241 0.1077624
-13.707139 -3.3483753 -0.013385586
-13.543077 -4.0860929 0.16370919
-13.306342 -4.6609006 0.010984183
-13.025631 -5.2794538 0.12285112
-12.744001 -6.0272641 0.007606423
-12.34778 -6.5722346 0.091650046
-12.054175 -7.2262473 0.071158223
-11.726334 -7.7325768 0.15509012
-11.239511 -8.3193302 0.055103127
-10.816842 -8.9055901 0.12547338
-10.431113 -9.4040852 0.016054358
-9.9412575 -9.9008961 0.038695827
-9.4501867 -10.354776 0.14640941
-8.8889322 -10.752712 0.083962686
-8.3941689 -11.324203 0.10904933
-7.7943301 -11.584463 0.0099291801
-7.0914941 -12.065227 0.061484858
-6.5916119 -12.360618 -0.0061323098
-5.9917154 -12.739193 0.10770729
-5.2772188 -12.89175 -0.01681727
-4.6792955 -13.28092 0.086423308
-3.9792967 -13.427248 -0.0037890878
-3.2467508 -13.553113 0.13136101
-2.5981996 -13.810795 0.1225486
-2.0054364 -13.888059 0.1698548
-1.3825774 -13.899862 0.15711777
-0.65549082 -13.961958 0.03547607
0.12482981 -14.094713 0.16104867
0.837538 -14.014155 0.020573061
1.4624169 -14.020313 0.0092360415
2.1594329 -13.842937 0.058915049
2.9546897 -13.791654 -0.019660465
3.4530849 -13.644104 0.16133372
4.2783475 -13.492944 0.036996864
4.884901 -13.201065 0.15429509
5.5272756 -12.943906 0.14494988
6.1438646 -12.621189 0.12472632
6.824234 -12.382037 -0.011102338
7.4141021 -12.094819 0.11666909
8.0459642 -11.646521 -0.012741235
8.4475441 -11.362561 0.15025511
9.0784893 -10.940665 0.045827542
9.6092253 -10.472074 0.13678691
10.098055 -9.8227301 -0.0063423309
10.638433 -9.4026012 0.12451755
6.2070694 -4.9726558 1.2288042
6.0978451 -4.3418856 1.2809074
6.0944347 -3.9810765 1.4233621
6.1298995 -3.441407 1.3105972
6.2685852 -3.0648298 1.474435
6.4096522 -2.8323207 1.4492811
7.4515605 -2.9179037 1.3092278
8.5713768 -2.8530316 1.1110474
9.9888363 -2.9434721 0.84666157
13.767369 -3.4100428 0.061827678
14.068383 -2.6046662 0.080342889
14.073959 -2.0235651 -0.0090348246
14.225009 -1.2886114 0.053285651
13.266062 -0.48886922 0.23469824
13.223549 0.15910748 0.99153793
13.157823 0.81203729 0.98717141
20.574823 2.1767426 0.12165201
20.417929 3.0365965 0.11760241
20.432362 4.0500593 0.0013873326
20.188782 5.0715981 0.034118686
19.804625 6.0296926 -0.0057933917
19.591419 7.0600042 0.050716016
19.242035 7.9394283 0.15248826
18.709051 8.9716978 0.11253606
18.330315 9.8053694 0.071643531
17.888474 10.765658 0.041184481
17.199633 11.661733 -0.0044709267
16.763025 12.297261 0.0046198885
16.082445 13.090748 0.029358881
15.447227 14.031003 0.087518759
14.60791 14.623822 0.12773211
13.893534 15.485953 0.036644891
13.202285 16.126335 0.080114119
12.381274 16.605696 0.030005524
11.490701 17.321718 0.10897385
10.731619 17.853725 0.067065537
9.916523 18.396051 0.065619215
8.8323393 18.841053 0.071704447
7.9359932 19.183588 0.072886512
7.0453625 19.506449 0.047467194
5.9961452 19.841492 0.081389219
5.1727109 20.148037 0.079110511
4.0461097 20.281946 0.055711292
3.1532786 20.544455 0.088592254
2.2030437 20.695192 0.054336458
1.1269028 20.69297 0.010259364
0.0064126467 20.70715 0.009309886
-0.91552621 20.692013 -0.0019984071
-1.8289433 20.656712 0.11879845
-2.9363086 20.426165 -0.0020506603
-3.8618026 20.258829 0.094434515
-4.9436798 20.195337 0.027322127
-5.8157611 19.945137 0.072189756
-6.8968153 19.552345 0.0063872216
-7.7282462 19.167618 0.16731213
-8.7749138 18.670805 0.051469583
-9.6444092 18.220984 0.12490561
-10.491426 17.817806 0.008010827
-11.324201 17.268559 0.1302667
-12.208566 16.575729 0.14589365
-12.984172 16.115303 0.16727199
-13.831764 15.322702 0.1469954
-14.51309 14.597242 0.14657031
-15.114405 13.917205 0.070972413
-15.944694 13.117239 0.17506878
-16.375639 12.364936 -0.0073051876
-17.082502 11.61814 0.015777595
-17.674606 10.677899 0.1347979
-18.14097 9.7349634 0.046321724
-10.032653 4.8398533 1.2595717
-9.8996277 4.3700552 1.2491665
-9.9134884 3.6274793 1.3075924
-9.9167652 3.1467211 1.3388215
-12.007537 3.1047535 1.145797
-20.224174 4.0982728 0.1371917
-20.397469 3.0970821 0.0094154356
-20.503969 2.1649249 0.16278793
-20.537922 1.1776582 0.03148064
-20.603209 0.020820465 0.038356703
-20.507267 -0.98089355 0.12707612
-20.359903 -2.0094182 0.1204498
-20.398718 -2.8409419 0.1377738
-20.155176 -3.8933203 0.031231808
-19.856894 -4.9645743 0.097875126
-19.65103 -5.9279218 0.16895254
-19.371401 -6.8769155 0.036637746
-18.972748 -7.7916117 -0.022738131
-18.574799 -8.6466522 0.14059208
-18.063221 -9.7207861 0.15950076
-17.500927 -10.500311 -0.010883846
-17.007278 -11.381328 0.00019346501
-16.478924 -12.197419 -0.015133766
-15.893319 -12.913405 0.11499141
-15.17583 -13.721371 0.16200086
-14.554863 -14.560103 0.021728573
-13.827668 -15.201639 0.094104864
-12.999404 -15.772073 -0.0033138937
-12.198978 -16.516438 0.17011145
-11.405608 -16.96454 0.17404036
-10.565709 -17.508101 0.079656102
-9.6706352 -18.057091 0.15991737
-8.7410479 -18.616938 0.052138604
-7.8055305 -18.969217 0.026821088
-6.9208608 -19.419485 0.16045615
-5.9724302 -19.700218 -0.01109885
-4.9498367 -19.939573 0.074209362
-3.8427832 -20.069214 0.050657772
-3.0234449 -20.347984 0.10589586
-2.0233815 -20.412132 0.096265838
-1.0145103 -20.442455 0.084985957
0.10242237 -20.609154 0.023993887
1.0996232 -20.501091 0.058600996
2.1866133 -20.533655 0.15144263
3.043421 -20.3769 0.15861218
4.0265775 -20.184113 0.0028462994
5.0284886 -19.895985 0.077959098
6.1036382 -19.640671 0.045449879
7.1408138 -19.316244 0.10744207
8.01649 -18.950041 0.029389288
8.8635206 -18.539011 -0.0043461379
9.878027 -18.178528 0.020213498
10.608117 -17.589424 0.12812321
11.547267 -17.080685 0.1291108
12.35165 -16.478928 0.16302922
13.133599 -15.851925 0.01674092
13.928256 -15.172732 0.13683601
14.764651 -14.557633 0.042280901
15.333396 -13.831863 0.15462327
16.12731 -12.941949 0.068836123
16.604752 -12.099368 -0.016178632
7.1468368 -4.5918636 1.5436789
7.2458301 -4.1331048 1.6792623
7.2255049 -3.7972589 1.5819148
7.1797061 -3.2930374 1.7033191
7.5255036 -2.8907211 1.6035538
8.4413099 -2.9877381 1.5954254
19.941557 -5.7948551 0.1412912
20.078979 -4.9717741 0.16868363
20.280529 -4.004303 0.11925592
20.547544 -2.9728754 0.11413547
20.680378 -1.91363 0.06316977
13.25393 -0.63311118 0.9742983
